-2635114.6088383733 -4456750.325965144 3713049.69696079
-2635114.6138201496 -4456750.333121979 3713049.7027759287
-2635114.6128902123 -4456750.333078478 3713049.7028798624
-2635114.6140514566 -4456750.336371199 3713049.7066168357
-2635114.611447512 -4456750.330165371 3713049.700679372
-2635114.611549533 -4456750.330079967 3713049.7017085482
-2635114.61204503 -4456750.333232564 3713049.7041766495
-2635114.6118983887 -4456750.331774929 3713049.7030787966
-2635114.6162411137 -4456750.334650182 3713049.7070163647
-2635114.6126719653 -4456750.331040115 3713049.7026703334
-2635114.6125903297 -4456750.330919428 3713049.7009971715
-2635114.6100456994 -4456750.331181369 3713049.7018951993
-2635114.61193908 -4456750.332477334 3713049.703295238
-2635114.60764244 -4456750.324988132 3713049.6963871485
-2635114.6158827897 -4456750.334592583 3713049.706185794
-2635114.6120511214 -4456750.333652815 3713049.704099788
-2635114.610146174 -4456750.325777925 3713049.6992384186
-2635114.6106412685 -4456750.3263832955 3713049.7006135206
-2635114.6108571454 -4456750.329391078 3713049.702293715
-2635114.611988196 -4456750.331376723 3713049.702360634
-2635114.611266011 -4456750.331389054 3713049.703952336
-2635114.611013261 -4456750.333788334 3713049.703680702
-2635114.6112567848 -4456750.334111883 3713049.7036907123
-2635114.614745745 -4456750.335664821 3713049.705372121
-2635114.609877434 -4456750.326214704 3713049.7006518217
-2635114.612391015 -4456750.330040021 3713049.7036172557
-2635114.6148983496 -4456750.33374634 3713049.705602516
-2635114.6090580854 -4456750.328183095 3713049.700494365
-2635114.6132987654 -4456750.330543511 3713049.7053599316
-2635114.613040788 -4456750.33097009 3713049.7034113617
-2635114.6132340864 -4456750.334137059 3713049.7062611296
-2635114.6129882103 -4456750.333537945 3713049.7059409916
-2635114.6141529144 -4456750.336319465 3713049.7085586935
-2635114.611411878 -4456750.333679694 3713049.7050020816
-2635114.6120289657 -4456750.335984362 3713049.7049510623
-2635114.6125167855 -4456750.336412215 3713049.7060945295
-2635114.6095979977 -4456750.334471705 3713049.702769813
-2635114.6102712336 -4456750.334325386 3713049.705126886
-2635114.612839899 -4456750.335497008 3713049.7056170427
-2635114.614308136 -4456750.336679714 3713049.7082442236
-2635114.612460607 -4456750.334979418 3713049.70573342
-2635114.609607274 -4456750.333143207 3713049.701135977
-2635114.6119659557 -4456750.331835727 3713049.7040165113
-2635114.608711174 -4456750.327837882 3713049.700491607
-2635114.6085950686 -4456750.330042814 3713049.7005736185
-2635114.6075131777 -4456750.330478425 3713049.7005500994
-2635114.610344159 -4456750.330796137 3713049.702274048
-2635114.610059263 -4456750.33273418 3713049.7045685546
-2635114.6119819647 -4456750.332671392 3713049.7058018767
-2635114.6103030597 -4456750.333149829 3713049.7038857117
-2635114.6064762305 -4456750.329294905 3713049.698948645
-2635114.6104123127 -4456750.334746488 3713049.706714801
-2635114.609472436 -4456750.335446475 3713049.7052020407
-2635114.6102444343 -4456750.337170163 3713049.708661885
-2635114.610515079 -4456750.3353061415 3713049.706962813
-2635114.6090726415 -4456750.333570809 3713049.7064268976
-2635114.610123414 -4456750.336349731 3713049.706729958
-2635114.6109207375 -4456750.337437652 3713049.706969145
-2635114.610602579 -4456750.334793047 3713049.7067691274
-2635114.608552026 -4456750.33154044 3713049.704221224
-2635114.6090111686 -4456750.333744884 3713049.7050570436
-2635114.611759015 -4456750.336498008 3713049.708786943
-2635114.6089974404 -4456750.334739157 3713049.707359072
-2635114.612419775 -4456750.33667063 3713049.7093565967
-2635114.6114955917 -4456750.332591142 3713049.7064209026
-2635114.6131395637 -4456750.337616292 3713049.709493897
-2635114.610139282 -4456750.331227661 3713049.7053192277
-2635114.6132768807 -4456750.333766653 3713049.7085284144
-2635114.612354469 -4456750.332998488 3713049.708246072
-2635114.6110080285 -4456750.333128135 3713049.7064900147
-2635114.6130116573 -4456750.333477008 3713049.7073202766
-2635114.6142159947 -4456750.333658503 3713049.7079491466
-2635114.611125009 -4456750.329905097 3713049.704611592
-2635114.6105935043 -4456750.331881545 3713049.705034204
-2635114.6087963847 -4456750.32827422 3713049.7036988717
-2635114.6072480497 -4456750.326558373 3713049.70058887
-2635114.613203153 -4456750.332872834 3713049.708009488
-2635114.6122058243 -4456750.333779903 3713049.70767643
-2635114.6117013837 -4456750.336316278 3713049.709511281
-2635114.612101055 -4456750.337614462 3713049.7098789564
-2635114.6118533486 -4456750.332880983 3713049.7088594935
-2635114.611248885 -4456750.33268775 3713049.7080395385
-2635114.6121152826 -4456750.333296086 3713049.709790356
-2635114.61106526 -4456750.330423987 3713049.7091094516
-2635114.611636286 -4456750.329244184 3713049.708062522
-2635114.6120093917 -4456750.331150845 3713049.707183201
-2635114.6134085953 -4456750.333853266 3713049.70786772
-2635114.6105477004 -4456750.331070274 3713049.703304333
-2635114.609840497 -4456750.332122507 3713049.7063084645
-2635114.609567712 -4456750.3315700805 3713049.7042773347
-2635114.6123804925 -4456750.334044252 3713049.7072679847
-2635114.6097021005 -4456750.33103762 3713049.7076410893
-2635114.61305976 -4456750.334032938 3713049.710535748
-2635114.6102979686 -4456750.333631824 3713049.7083497914
-2635114.6083784 -4456750.331895033 3713049.706572729
-2635114.608744409 -4456750.329063756 3713049.704238354
-2635114.6108124075 -4456750.3270370765 3713049.706250238
-2635114.6101691807 -4456750.32862191 3713049.704352143
-2635114.6115788817 -4456750.327922748 3713049.7071015015
-2635114.6094080247 -4456750.326341327 3713049.7041865964
-2635114.6069898903 -4456750.324110579 3713049.7033047676
-2635114.604828208 -4456750.321756717 3713049.6998020806
-2635114.6027613315 -4456750.31848583 3713049.699565405
-2635114.6006528125 -4456750.316271647 3713049.695739386
-2635114.5971168377 -4456750.314307217 3713049.6919850986
-2635114.602269635 -4456750.3177524535 3713049.6954958895
-2635114.6026985114 -4456750.317228858 3713049.695941984
-2635114.606550995 -4456750.322575053 3713049.702518618
-2635114.6065363945 -4456750.32248912 3713049.700950441
-2635114.610194901 -4456750.324868833 3713049.705014152
-2635114.610041086 -4456750.325253095 3713049.704636895
-2635114.6060436433 -4456750.323102078 3713049.701520652
-2635114.605095861 -4456750.3210872 3713049.6992484624
-2635114.6063246774 -4456750.321908955 3713049.7017187374
-2635114.6096389974 -4456750.327019094 3713049.706322115
-2635114.6081450605 -4456750.324946424 3713049.7030097093
-2635114.603150691 -4456750.319159371 3713049.6961301276
-2635114.606538707 -4456750.32352862 3713049.7022132585
-2635114.6038056593 -4456750.319334903 3713049.6984789986
-2635114.602795857 -4456750.3191720415 3713049.699281722
-2635114.6051664883 -4456750.320752362 3713049.699507484
-2635114.607546082 -4456750.3227468785 3713049.7022513365
-2635114.608519274 -4456750.323623084 3713049.7020011875
-2635114.6070876466 -4456750.323540766 3713049.701112029
-2635114.6041134796 -4456750.323459653 3713049.6999508003
-2635114.6041511022 -4456750.321706273 3713049.700773873
-2635114.606154272 -4456750.322323539 3713049.7030195184
-2635114.604384663 -4456750.3221376985 3713049.699969156
-2635114.6066762237 -4456750.324845297 3713049.7011727816
-2635114.6063695354 -4456750.319626874 3713049.6983186873
-2635114.6055125194 -4456750.319303505 3713049.6995737525
-2635114.6023123087 -4456750.3196148835 3713049.695543699
-2635114.6058658673 -4456750.3226241805 3713049.701024198
-2635114.604747811 -4456750.318247313 3713049.7001948156
-2635114.605989393 -4456750.322243997 3713049.702475253
-2635114.60817713 -4456750.332226421 3713049.705799718
-2635114.611283414 -4456750.3294997215 3713049.707688951
-2635114.6102992264 -4456750.326482155 3713049.70699347
-2635114.6085861553 -4456750.32298281 3713049.70475511
-2635114.6137898644 -4456750.332397715 3713049.7100154525
-2635114.608745535 -4456750.329367973 3713049.705925947
-2635114.6116337595 -4456750.329519597 3713049.7067297176
-2635114.6107402598 -4456750.330245577 3713049.706661442
-2635114.607763526 -4456750.324937695 3713049.702399024
-2635114.610133024 -4456750.327818144 3713049.7060672925
-2635114.6127482145 -4456750.329283979 3713049.7092402456
-2635114.612338039 -4456750.3335930705 3713049.7102052313
-2635114.612908922 -4456750.332388768 3713049.7093785354
-2635114.6124093914 -4456750.328813444 3713049.707538077
-2635114.6122119064 -4456750.329133372 3713049.707961421
-2635114.609720898 -4456750.329999829 3713049.709056438
-2635114.6111950288 -4456750.330056165 3713049.7104708008
-2635114.6126440526 -4456750.33044059 3713049.709296414
-2635114.6125854547 -4456750.331096054 3713049.7091646404
-2635114.613516059 -4456750.334528964 3713049.713001709
-2635114.614725529 -4456750.334623273 3713049.713710967
-2635114.613192391 -4456750.333048941 3713049.711713422
-2635114.6151951733 -4456750.33387263 3713049.712876825
-2635114.6163038155 -4456750.3341369 3713049.712486359
-2635114.619527666 -4456750.337098778 3713049.7168718316
-2635114.6172686373 -4456750.33599024 3713049.714230765
-2635114.623083038 -4456750.342452182 3713049.7219082736
-2635114.622687608 -4456750.33988931 3713049.7198743224
-2635114.6194475344 -4456750.33840723 3713049.718753723
-2635114.6229388425 -4456750.342865306 3713049.722392986
-2635114.6230155025 -4456750.343020073 3713049.7221034733
-2635114.623676257 -4456750.342328006 3713049.7251944905
-2635114.625095526 -4456750.341261885 3713049.7262652013
-2635114.6253684806 -4456750.340298046 3713049.723453596
-2635114.626341147 -4456750.341625043 3713049.725400611
-2635114.6283116927 -4456750.341391022 3713049.7259418475
-2635114.6226360896 -4456750.3349664 3713049.720014777
-2635114.6249761293 -4456750.336792288 3713049.723366048
-2635114.625829204 -4456750.338341234 3713049.724426841
-2635114.6281287116 -4456750.337677588 3713049.725422081
-2635114.6239939393 -4456750.336435643 3713049.7220542724
-2635114.6217437214 -4456750.336320588 3713049.721358705
-2635114.6214907174 -4456750.331493617 3713049.718124569
-2635114.6225602147 -4456750.333339035 3713049.7175897798
-2635114.62068513 -4456750.332254292 3713049.7144406894
-2635114.6227050694 -4456750.333555588 3713049.715854595
-2635114.6215118533 -4456750.333769892 3713049.71845619
-2635114.620776048 -4456750.334524432 3713049.7174492637
-2635114.6212423407 -4456750.332034188 3713049.7168649025
-2635114.6199871553 -4456750.333449629 3713049.714450813
-2635114.618060817 -4456750.328222295 3713049.7115723467
-2635114.6202740795 -4456750.329570471 3713049.7128596776
-2635114.62086484 -4456750.32958795 3713049.714092302
-2635114.6161538186 -4456750.325965113 3713049.710029287
-2635114.613414211 -4456750.32502606 3713049.706149595
-2635114.614634496 -4456750.326020195 3713049.70900078
-2635114.6154183266 -4456750.328539246 3713049.7103558662
-2635114.6159109566 -4456750.330524394 3713049.712378341
-2635114.612047421 -4456750.328120413 3713049.707344355
-2635114.612475026 -4456750.323996305 3713049.705743733
-2635114.6140832584 -4456750.327500143 3713049.7087053424
-2635114.615633632 -4456750.332232757 3713049.7125001913
-2635114.6130047273 -4456750.326866934 3713049.7064175545
-2635114.616472133 -4456750.328123493 3713049.7138057975
-2635114.615098734 -4456750.328441425 3713049.712559716
-2635114.613372601 -4456750.327365405 3713049.709677391
-2635114.6161078485 -4456750.32478022 3713049.708903513
-2635114.614349794 -4456750.323121833 3713049.7074987954
-2635114.616098598 -4456750.328520044 3713049.7113383077
-2635114.619298795 -4456750.330874967 3713049.7159354016
-2635114.6175750606 -4456750.328353182 3713049.713469336
-2635114.6176710576 -4456750.329992397 3713049.7126965146
-2635114.614818881 -4456750.332763033 3713049.7131462395
-2635114.617112668 -4456750.335037501 3713049.716541224
-2635114.6163610653 -4456750.331013268 3713049.7139906874
-2635114.6129807867 -4456750.32976516 3713049.710288595
-2635114.612729121 -4456750.326801628 3713049.710124644
-2635114.618086351 -4456750.332965298 3713049.715636639
-2635114.6193216136 -4456750.338041168 3713049.7171188514
-2635114.619656177 -4456750.336837276 3713049.7178572156
-2635114.6191218607 -4456750.334710726 3713049.717202008
-2635114.619670226 -4456750.3373527955 3713049.7185480124
-2635114.6215138943 -4456750.339895082 3713049.720816198
-2635114.642036563 -4456750.370677853 3713049.7468195367
-2635114.621183799 -4456750.33757448 3713049.7221403285
-2635114.622095268 -4456750.341889088 3713049.7228329717
-2635114.6197822825 -4456750.3389530415 3713049.720138425
-2635114.620842966 -4456750.334919283 3713049.720942252
-2635114.6185474126 -4456750.3340989975 3713049.7192744548
-2635114.617016607 -4456750.337876418 3713049.719920748
-2635114.6166321044 -4456750.333679566 3713049.71842437
-2635114.6197114023 -4456750.3346034605 3713049.721067369
-2635114.618596848 -4456750.3364333175 3713049.7204218605
-2635114.6205173577 -4456750.339454111 3713049.7227243376
-2635114.6179945366 -4456750.331643054 3713049.7159862234
-2635114.6183839757 -4456750.331934523 3713049.7165631903
-2635114.6177696194 -4456750.336370236 3713049.717565512
-2635114.618387077 -4456750.339441231 3713049.718038127
-2635114.616232814 -4456750.331890295 3713049.715603018
-2635114.6178032705 -4456750.337297584 3713049.716129005
-2635114.6174560175 -4456750.338051252 3713049.719438087
-2635114.617486785 -4456750.336072578 3713049.7187462975
-2635114.6147260224 -4456750.33137526 3713049.713554982
-2635114.614660284 -4456750.3314053295 3713049.7135001873
-2635114.613826616 -4456750.331990307 3713049.7141278186
-2635114.609250736 -4456750.326758283 3713049.7102679964
-2635114.6105281566 -4456750.327237056 3713049.7103942996
-2635114.6124218656 -4456750.32909941 3713049.711785968
-2635114.615036293 -4456750.333524565 3713049.7160067386
-2635114.6140206945 -4456750.334547238 3713049.7151797405
-2635114.6158131636 -4456750.33824145 3713049.717576393
-2635114.6140196607 -4456750.335586633 3713049.716997714
-2635114.61596475 -4456750.33861717 3713049.720161902
-2635114.6144628148 -4456750.336281103 3713049.717486524
-2635114.6131706387 -4456750.335510909 3713049.7157505285
-2635114.616471603 -4456750.340423447 3713049.719974439
-2635114.616362825 -4456750.339106888 3713049.721444891
-2635114.619513897 -4456750.342845893 3713049.72462673
-2635114.6183386203 -4456750.342527174 3713049.7219231175
-2635114.617245876 -4456750.341863169 3713049.718627909
-2635114.615948206 -4456750.338370448 3713049.717417408
-2635114.6109702187 -4456750.3346346505 3713049.7112389263
-2635114.610944125 -4456750.331493468 3713049.713986549
-2635114.61504185 -4456750.338522061 3713049.7178860717
-2635114.616240874 -4456750.342146978 3713049.7217947044
-2635114.6185310343 -4456750.343609028 3713049.7226784956
-2635114.6182494946 -4456750.342212119 3713049.7225955795
-2635114.618599767 -4456750.341575747 3713049.720093986
-2635114.6199462465 -4456750.3429049095 3713049.721025784
-2635114.6167660723 -4456750.338860997 3713049.7183909044
-2635114.6169059537 -4456750.336258321 3713049.717329761
-2635114.617287978 -4456750.339511706 3713049.721688715
-2635114.616603032 -4456750.339333553 3713049.718848068
-2635114.616410447 -4456750.3368777335 3713049.717790817
-2635114.6165322806 -4456750.336548156 3713049.7179384213
-2635114.6162357437 -4456750.3384447815 3713049.717620261
-2635114.6157485708 -4456750.33816494 3713049.717979847
-2635114.6155057503 -4456750.338744524 3713049.7154300213
-2635114.6183355064 -4456750.341795851 3713049.7189402175
-2635114.6186371967 -4456750.34122443 3713049.7179332194
-2635114.621385208 -4456750.345223432 3713049.7228789073
-2635114.621211342 -4456750.346061177 3713049.7225339524
-2635114.622164164 -4456750.346327794 3713049.720777235
-2635114.6238162545 -4456750.345010466 3713049.7203318337
-2635114.620210776 -4456750.343921191 3713049.7195764952
-2635114.622002068 -4456750.350720155 3713049.721806571
-2635114.6202002154 -4456750.347377956 3713049.7181533757
-2635114.6204962083 -4456750.344206757 3713049.71894461
-2635114.6246820665 -4456750.352171914 3713049.7226224677
-2635114.624815215 -4456750.355311203 3713049.7227661447
-2635114.6237599594 -4456750.350605213 3713049.7220188086
-2635114.620133085 -4456750.347613026 3713049.718279499
-2635114.6199722495 -4456750.347379143 3713049.717661523
-2635114.624453915 -4456750.351831792 3713049.722996394
-2635114.623871583 -4456750.348502223 3713049.720447766
-2635114.624592719 -4456750.350001801 3713049.7204419235
-2635114.624201698 -4456750.350995513 3713049.719920693
-2635114.6234319177 -4456750.348628044 3713049.720743679
-2635114.621959462 -4456750.347207259 3713049.720670157
-2635114.6252610832 -4456750.354775525 3713049.7252448397
-2635114.6237352015 -4456750.353196781 3713049.7238015193
-2635114.6225561905 -4456750.348947636 3713049.7197697107
-2635114.626804139 -4456750.353085005 3713049.7251108605
-2635114.6235198476 -4456750.348670048 3713049.721927513
-2635114.623040711 -4456750.350803326 3713049.7205260214
-2635114.6255403333 -4456750.351934108 3713049.7218498723
-2635114.625191871 -4456750.351618773 3713049.7226170646
-2635114.624066753 -4456750.354945194 3713049.724086172
-2635114.623712691 -4456750.354177828 3713049.7214431795
-2635114.627827675 -4456750.357394603 3713049.7262692805
-2635114.62540644 -4456750.353667436 3713049.7231139736
-2635114.627833882 -4456750.361816687 3713049.7248859014
-2635114.625913743 -4456750.361531003 3713049.7229653774
-2635114.626868832 -4456750.355670304 3713049.724982597
-2635114.6255085072 -4456750.3555635335 3713049.7262428273
-2635114.6231858586 -4456750.357211112 3713049.7257437473
-2635114.652030174 -4456750.395983305 3713049.759771837
-2635114.616708401 -4456750.345300407 3713049.7172586457
-2635114.618062546 -4456750.348199028 3713049.719387566
-2635114.6201903657 -4456750.351965179 3713049.7214028277
-2635114.6217120974 -4456750.347809646 3713049.722848909
-2635114.6304174047 -4456750.359511111 3713049.733650556
-2635114.634114636 -4456750.368865429 3713049.7373504136
-2635114.6267371206 -4456750.360121096 3713049.7271287106
-2635114.6340757622 -4456750.363940958 3713049.7326945425
-2635114.624030592 -4456750.349713938 3713049.722519718
-2635114.625094491 -4456750.355072521 3713049.7246748162
-2635114.6244461383 -4456750.353591342 3713049.725233878
-2635114.6248172717 -4456750.3515269635 3713049.72417399
-2635114.6272676396 -4456750.356818478 3713049.7279209504
-2635114.6260887827 -4456750.359650263 3713049.7285366477
-2635114.6561125065 -4456750.401398324 3713049.765538188
-2635114.626001124 -4456750.356598486 3713049.7278212393
-2635114.6252871915 -4456750.35816764 3713049.7265850916
-2635114.6277870084 -4456750.360633666 3713049.728082427
-2635114.6284197546 -4456750.356591528 3713049.7264935607
-2635114.629028961 -4456750.358620363 3713049.728496224
-2635114.6306059933 -4456750.36491731 3713049.7316244137
-2635114.624610302 -4456750.357220896 3713049.724108418
-2635114.624397484 -4456750.35181638 3713049.7230484616
-2635114.6246074997 -4456750.354261699 3713049.7238014075
-2635114.6261181394 -4456750.36054347 3713049.727385189
-2635114.6267835125 -4456750.357795843 3713049.729070293
-2635114.6283000233 -4456750.355673096 3713049.729249045
-2635114.6333093382 -4456750.366299437 3713049.7366259163
-2635114.6290737605 -4456750.361324744 3713049.73206304
-2635114.6286275918 -4456750.355552763 3713049.72875099
-2635114.626349553 -4456750.355208818 3713049.726757754
-2635114.62453335 -4456750.3583537415 3713049.727953038
-2635114.6271012584 -4456750.357871461 3713049.7288487577
-2635114.6264266414 -4456750.354000269 3713049.725226713
-2635114.6262502787 -4456750.359566161 3713049.7285345043
-2635114.6276528346 -4456750.3585621165 3713049.72761557
-2635114.6318338206 -4456750.358635695 3713049.731457658
-2635114.628857575 -4456750.358975518 3713049.7298575076
-2635114.6315107555 -4456750.364134861 3713049.734650541
-2635114.6342991744 -4456750.3657068955 3713049.736588064
-2635114.6296027415 -4456750.358410602 3713049.730358438
-2635114.620564185 -4456750.348301626 3713049.720227849
-2635114.6324883155 -4456750.362711892 3713049.733382902
-2635114.6346865618 -4456750.362439607 3713049.738279603
-2635114.634041171 -4456750.361695878 3713049.736686344
-2635114.634321564 -4456750.361651745 3713049.7359296484
-2635114.631105027 -4456750.358882997 3713049.73264433
-2635114.623246557 -4456750.350079978 3713049.7219587034
-2635114.635238301 -4456750.363625914 3713049.7350092786
-2635114.6353395726 -4456750.364032983 3713049.7376367943
-2635114.634470848 -4456750.365763888 3713049.73675268
-2635114.6347122695 -4456750.364031754 3713049.7376961587
-2635114.6335240128 -4456750.364939409 3713049.735637309
-2635114.620793925 -4456750.348916188 3713049.7216815
-2635114.6221267944 -4456750.34877129 3713049.7211926766
-2635114.6321336115 -4456750.357886415 3713049.7310100254
-2635114.6241203435 -4456750.350992502 3713049.72230717
-2635114.622887807 -4456750.349639256 3713049.7197601334
-2635114.622797342 -4456750.349277719 3713049.7219242817
-2635114.635922482 -4456750.36528653 3713049.7381781875
-2635114.6378772543 -4456750.369840935 3713049.743318793
-2635114.6354477527 -4456750.364947315 3713049.7397584035
-2635114.6252802773 -4456750.352972631 3713049.727863859
-2635114.6260382906 -4456750.356093258 3713049.7293264256
-2635114.622658471 -4456750.351853694 3713049.7247905037
-2635114.626787939 -4456750.359956418 3713049.731085879
-2635114.634798201 -4456750.370151683 3713049.740633069
-2635114.6248592017 -4456750.356301095 3713049.7276039897
-2635114.625509612 -4456750.355524798 3713049.7284757863
-2635114.634562449 -4456750.3681341065 3713049.739411781
-2635114.6227456327 -4456750.352480418 3713049.726924446
-2635114.6236370727 -4456750.352023483 3713049.726679197
-2635114.6252617836 -4456750.356838821 3713049.727324237
-2635114.622506009 -4456750.355470865 3713049.7245618654
-2635114.620362653 -4456750.34588631 3713049.7208352354
-2635114.622013017 -4456750.347875595 3713049.7220679387
-2635114.621399258 -4456750.351498953 3713049.7242581327
-2635114.623054573 -4456750.350776249 3713049.725851008
-2635114.6351958225 -4456750.365026651 3713049.7423270913
-2635114.6233579665 -4456750.352978845 3713049.724933817
-2635114.6225737906 -4456750.349906587 3713049.72220286
-2635114.6253466187 -4456750.349338522 3713049.7241159854
-2635114.623083938 -4456750.351535244 3713049.7242090944
-2635114.6230131397 -4456750.354507225 3713049.72479847
-2635114.626090809 -4456750.353493767 3713049.7272090325
-2635114.6206639884 -4456750.347315657 3713049.723418321
-2635114.6259626923 -4456750.354884064 3713049.727613845
-2635114.623997414 -4456750.356163626 3713049.7269742284
-2635114.62219371 -4456750.3518511215 3713049.725434
-2635114.6210769117 -4456750.348979378 3713049.7239281754
-2635114.619523997 -4456750.348925579 3713049.723417675
-2635114.6170461555 -4456750.344035695 3713049.7209020667
-2635114.619023337 -4456750.34838103 3713049.724383645
-2635114.6195603455 -4456750.352272106 3713049.7241934473
-2635114.62424121 -4456750.35701755 3713049.7295483407
-2635114.623340663 -4456750.355094109 3713049.728159964
-2635114.6311984197 -4456750.364510707 3713049.740241435
-2635114.6207011784 -4456750.354062943 3713049.7282397407
-2635114.6207360826 -4456750.356238177 3713049.7260601493
-2635114.6274874713 -4456750.360566013 3713049.7365978453
-2635114.615482394 -4456750.345869626 3713049.7217414086
-2635114.615157012 -4456750.346960139 3713049.719847686
-2635114.6155923232 -4456750.348024293 3713049.7201431333
-2635114.614408459 -4456750.338235268 3713049.7182047386
-2635114.629216222 -4456750.358673951 3713049.737063797
-2635114.6151630846 -4456750.342703607 3713049.717759434
-2635114.615417149 -4456750.335538068 3713049.7138969605
-2635114.620634897 -4456750.343132192 3713049.7220869632
-2635114.6217310377 -4456750.349743125 3713049.726684113
-2635114.6103553544 -4456750.336308184 3713049.710758711
-2635114.6198862763 -4456750.342283415 3713049.7209384143
-2635114.622759299 -4456750.349617904 3713049.7243177234
-2635114.6158495164 -4456750.344969801 3713049.7189320023
-2635114.6142306495 -4456750.340418533 3713049.717616416
-2635114.614169837 -4456750.337350355 3713049.717071846
-2635114.613033168 -4456750.342560308 3713049.7195631736
-2635114.625411381 -4456750.357114109 3713049.732730169
-2635114.6143320017 -4456750.338197644 3713049.717802346
-2635114.627210363 -4456750.352388593 3713049.733698296
-2635114.622063785 -4456750.348973078 3713049.7283102786
-2635114.6275456357 -4456750.355690263 3713049.7339354255
-2635114.6276339325 -4456750.355453154 3713049.7349333325
-2635114.613018686 -4456750.338042923 3713049.717811477
-2635114.622450873 -4456750.350362517 3713049.729501988
-2635114.6128604086 -4456750.337311393 3713049.7159134466
-2635114.6115712514 -4456750.331337431 3713049.712970377
-2635114.609322065 -4456750.332034344 3713049.710654924
-2635114.6199847716 -4456750.346936735 3713049.724793099
-2635114.606559555 -4456750.327852476 3713049.7092199354
-2635114.6186785335 -4456750.343471941 3713049.7284262576
-2635114.6193386647 -4456750.352102078 3713049.7274531987
-2635114.6221448067 -4456750.349552386 3713049.7295990065
-2635114.6191672925 -4456750.343592276 3713049.725876169
-2635114.6096103126 -4456750.3349361885 3713049.713403494
-2635114.6066867025 -4456750.331868541 3713049.7095987066
-2635114.6187154036 -4456750.343827024 3713049.7204502383
-2635114.612061106 -4456750.335104264 3713049.7124993545
-2635114.62396505 -4456750.354778106 3713049.7292010738
-2635114.6131787472 -4456750.3389854785 3713049.717843873
-2635114.6134564993 -4456750.336451843 3713049.7158444063
-2635114.6209024456 -4456750.348239019 3713049.723838664
-2635114.6198234637 -4456750.34756758 3713049.7236596365
-2635114.617699746 -4456750.344618238 3713049.720716943
-2635114.6195049817 -4456750.348483441 3713049.7254434624
-2635114.623147268 -4456750.354485534 3713049.7284819414
-2635114.6118949032 -4456750.338695233 3713049.7152793277
-2635114.6162091102 -4456750.3444708735 3713049.7208824647
-2635114.62457384 -4456750.35191691 3713049.7286120327
-2635114.614477957 -4456750.341983333 3713049.717735079
-2635114.6153341094 -4456750.342719954 3713049.7165117366
-2635114.6119400463 -4456750.333511536 3713049.7127943984
-2635114.6122578974 -4456750.335260737 3713049.7158493944
-2635114.6153100077 -4456750.34068737 3713049.7177507933
-2635114.619580369 -4456750.345604545 3713049.722818756
-2635114.6140440037 -4456750.33786682 3713049.7143503004
-2635114.6165710334 -4456750.342515426 3713049.7174506495
-2635114.6158752297 -4456750.345956246 3713049.718042057
-2635114.6162492987 -4456750.343115175 3713049.7184982733
-2635114.616383447 -4456750.344776125 3713049.718255721
-2635114.620127929 -4456750.350132481 3713049.7237975355
-2635114.619967686 -4456750.34781986 3713049.723325151
-2635114.6201363984 -4456750.348143185 3713049.723053572
-2635114.616738609 -4456750.347217229 3713049.7189999926
-2635114.618711756 -4456750.345749574 3713049.720477168
-2635114.6208773563 -4456750.34779732 3713049.722859719
-2635114.618383972 -4456750.344923971 3713049.719053242
-2635114.616550374 -4456750.346605875 3713049.718299674
-2635114.6119728666 -4456750.341911274 3713049.714077945
-2635114.6143449773 -4456750.342556413 3713049.7154505253
-2635114.6160663147 -4456750.34383105 3713049.7166458224
-2635114.6146189813 -4456750.34428926 3713049.7168854363
-2635114.612987302 -4456750.341952322 3713049.7153298305
-2635114.6118492126 -4456750.343168954 3713049.7167480756
-2635114.61659772 -4456750.349280719 3713049.720904016
-2635114.614866295 -4456750.346087489 3713049.716478157
-2635114.610780533 -4456750.337725414 3713049.7142807283
-2635114.6097843 -4456750.336854673 3713049.7097707638
-2635114.6107647135 -4456750.343281484 3713049.714418719
-2635114.609294953 -4456750.339929586 3713049.712736936
-2635114.6094313157 -4456750.336448488 3713049.713109734
-2635114.6104922476 -4456750.343619782 3713049.715967487
-2635114.612202099 -4456750.343477495 3713049.7174462504
-2635114.614666925 -4456750.340405866 3713049.716067074
-2635114.615258391 -4456750.341198811 3713049.718268053
-2635114.617639157 -4456750.346266542 3713049.7227811497
-2635114.615816713 -4456750.344534742 3713049.721311444
-2635114.616664907 -4456750.3428168055 3713049.7227587914
-2635114.6168608544 -4456750.343946934 3713049.721411263
-2635114.6139292554 -4456750.338755189 3713049.7159077097
-2635114.6134290197 -4456750.337824722 3713049.7169936993
-2635114.6148979208 -4456750.339851349 3713049.7196020274
-2635114.6118991473 -4456750.337668684 3713049.7160794074
-2635114.6125062313 -4456750.337258361 3713049.7174249487
-2635114.6113183773 -4456750.336769137 3713049.7152834344
-2635114.6112432214 -4456750.338433287 3713049.715409792
-2635114.614805084 -4456750.344126445 3713049.71824952
-2635114.614765858 -4456750.3398967385 3713049.7180262078
-2635114.6169951307 -4456750.342668208 3713049.72081722
-2635114.619599769 -4456750.345134076 3713049.7241864367
-2635114.6173663763 -4456750.345388587 3713049.721717255
-2635114.6158981556 -4456750.342600173 3713049.720060344
-2635114.6149717267 -4456750.342963355 3713049.7191115455
-2635114.615451113 -4456750.34074481 3713049.717074465
-2635114.61567334 -4456750.339503688 3713049.717467713
-2635114.6167629864 -4456750.34099954 3713049.7186732823
-2635114.61708312 -4456750.344311381 3713049.722043999
-2635114.619792879 -4456750.3448788505 3713049.72540129
-2635114.6175607503 -4456750.340871675 3713049.7219179426
-2635114.617370153 -4456750.340607052 3713049.7215124303
-2635114.617775095 -4456750.342765843 3713049.719941175
-2635114.6204593475 -4456750.34632732 3713049.722879009
-2635114.6222061724 -4456750.349475012 3713049.7253049025
-2635114.619466574 -4456750.3453301145 3713049.7217993266
-2635114.6367525742 -4456750.370296405 3713049.7444978184
-2635114.624565847 -4456750.34981107 3713049.727653632
-2635114.622085069 -4456750.350299056 3713049.724584419
-2635114.6205772287 -4456750.3474519625 3713049.722377954
-2635114.6154541746 -4456750.344813397 3713049.7203231584
-2635114.614611321 -4456750.3400110295 3713049.7157655163
-2635114.6098878086 -4456750.335226799 3713049.711240746
-2635114.6076244954 -4456750.332509762 3713049.7076891507
-2635114.6059365086 -4456750.329796347 3713049.7045175415
-2635114.6059292397 -4456750.330403298 3713049.7071221583
-2635114.606021142 -4456750.329113444 3713049.705467675
-2635114.605720077 -4456750.328919653 3713049.7063147523
-2635114.6061410657 -4456750.327626145 3713049.707266035
-2635114.6053861165 -4456750.329582815 3713049.7064319253
-2635114.6096745487 -4456750.330885727 3713049.709101443
-2635114.6079591736 -4456750.330065442 3713049.707319126
-2635114.607285866 -4456750.329213446 3713049.7068331647
-2635114.604798841 -4456750.326395686 3713049.7052479596
-2635114.6065641064 -4456750.325564482 3713049.7059671944
-2635114.603709993 -4456750.324550203 3713049.7029908444
-2635114.6049820054 -4456750.3257045755 3713049.7047775993
-2635114.606393679 -4456750.3308945885 3713049.704068088
-2635114.6044035056 -4456750.326170161 3713049.7013448323
-2635114.603354358 -4456750.322059533 3713049.702246637
-2635114.6022863607 -4456750.325328998 3713049.7032816773
-2635114.6029819474 -4456750.32756172 3713049.702461408
-2635114.6012135763 -4456750.3229981 3713049.70199804
-2635114.598315197 -4456750.3159459755 3713049.697398274
-2635114.600328419 -4456750.319055295 3713049.6988917827
-2635114.6011553383 -4456750.313143384 3713049.696213019
-2635114.6018282985 -4456750.314088828 3713049.697527301
-2635114.598186536 -4456750.310376224 3713049.6920691584
-2635114.597516397 -4456750.307362979 3713049.6904774476
-2635114.6006748276 -4456750.31241287 3713049.694308125
-2635114.602681394 -4456750.318508873 3713049.6987832515
-2635114.60386489 -4456750.321604664 3713049.7024356434
-2635114.601714492 -4456750.318412071 3713049.7008369225
-2635114.5983681553 -4456750.312688369 3713049.694759625
-2635114.601733855 -4456750.314818764 3713049.6964331726
-2635114.601893653 -4456750.315218297 3713049.697797984
-2635114.6049343217 -4456750.318703532 3713049.701410613
-2635114.606334266 -4456750.3204521695 3713049.7056149207
-2635114.6052968935 -4456750.319504449 3713049.7034441605
-2635114.601406296 -4456750.315665387 3713049.700564693
-2635114.6039301846 -4456750.313514774 3713049.697505298
-2635114.6030610045 -4456750.313209738 3713049.6971140113
-2635114.600200618 -4456750.311659622 3713049.6949273357
-2635114.5999969044 -4456750.311012052 3713049.696970522
-2635114.6042825906 -4456750.3165527005 3713049.702730018
-2635114.600539027 -4456750.314696105 3713049.695900847
-2635114.5994153237 -4456750.31512772 3713049.697824761
-2635114.598010961 -4456750.309437268 3713049.6938442867
-2635114.599954664 -4456750.313158483 3713049.6983338697
-2635114.600258993 -4456750.31534346 3713049.698720012
-2635114.6008527516 -4456750.312041768 3713049.6978726205
-2635114.602293494 -4456750.316594894 3713049.700406245
-2635114.6000495814 -4456750.31360185 3713049.6963241664
-2635114.5989106353 -4456750.309802893 3713049.6952310344
-2635114.5972348857 -4456750.310073653 3713049.6941986536
-2635114.597476883 -4456750.310382415 3713049.69485358
-2635114.598699307 -4456750.315195643 3713049.697469484
-2635114.599739004 -4456750.313428578 3713049.69869301
-2635114.605007272 -4456750.316075103 3713049.704673407
-2635114.609141494 -4456750.318867796 3713049.7059171703
-2635114.610079619 -4456750.324606567 3713049.709566287
-2635114.60762683 -4456750.324229203 3713049.7057206375
-2635114.60622715 -4456750.317465706 3713049.703127974
-2635114.6079236832 -4456750.321546835 3713049.7064159373
-2635114.6095204195 -4456750.324831 3713049.7053546105
-2635114.605377123 -4456750.320704897 3713049.7031930224
-2635114.6059258613 -4456750.319918588 3713049.7022557314
-2635114.6045658104 -4456750.318321053 3713049.702541258
-2635114.6038539656 -4456750.32062794 3713049.7039974676
-2635114.6034602732 -4456750.318767459 3713049.701528062
-2635114.607431781 -4456750.318694287 3713049.7054823944
-2635114.6077612056 -4456750.322520674 3713049.706430419
-2635114.607271297 -4456750.320993365 3713049.7047758307
-2635114.6039143587 -4456750.313161851 3713049.700582909
-2635114.603473881 -4456750.314308511 3713049.699458526
-2635114.6055468475 -4456750.319394195 3713049.703376409
-2635114.603002076 -4456750.316827962 3713049.7033237447
-2635114.6077013323 -4456750.322993468 3713049.707357038
-2635114.6063399194 -4456750.322086803 3713049.7047643275
-2635114.608071152 -4456750.320369651 3713049.706665224
-2635114.6045850804 -4456750.317075057 3713049.701211199
-2635114.605001665 -4456750.319340056 3713049.700693294
-2635114.606373734 -4456750.318656492 3713049.701228266
-2635114.6071831696 -4456750.317931861 3713049.704382825
-2635114.6047928217 -4456750.316940192 3713049.7022312228
-2635114.6055121426 -4456750.32151728 3713049.7031502407
-2635114.6007893663 -4456750.313758064 3713049.6971483096
-2635114.6007054127 -4456750.314875072 3713049.697284369
-2635114.603941025 -4456750.31800267 3713049.7000029297
-2635114.605320438 -4456750.323846797 3713049.702464876
-2635114.605664924 -4456750.322492279 3713049.702584898
-2635114.6032774993 -4456750.318188517 3713049.6997791105
-2635114.6047688895 -4456750.325069766 3713049.704136261
-2635114.6049621073 -4456750.322720237 3713049.7019292694
-2635114.602439723 -4456750.317360944 3713049.6994676413
-2635114.6023288206 -4456750.319953923 3713049.69979511
-2635114.604800371 -4456750.32419793 3713049.7028116034
-2635114.6010659034 -4456750.31838901 3713049.6990486113
-2635114.5980792604 -4456750.314724186 3713049.6961025763
-2635114.5992694926 -4456750.318620829 3713049.6986529143
-2635114.6006091842 -4456750.318786128 3713049.6987201786
-2635114.6019369597 -4456750.317549634 3713049.6978112203
-2635114.601917054 -4456750.320964588 3713049.7017293232
-2635114.6057990864 -4456750.323647058 3713049.7059422783
-2635114.6058041356 -4456750.321180561 3713049.704512796
-2635114.6048022346 -4456750.319773567 3713049.705250119
-2635114.603705199 -4456750.318877642 3713049.702283523
-2635114.606185471 -4456750.3210307835 3713049.7032862394
-2635114.604564671 -4456750.319969914 3713049.701762896
-2635114.608188634 -4456750.326083311 3713049.708982179
-2635114.604278906 -4456750.321023934 3713049.7038130555
-2635114.6079076 -4456750.321074181 3713049.708471201
-2635114.6118626217 -4456750.323739657 3713049.7094827564
-2635114.612549872 -4456750.325254053 3713049.711145167
-2635114.6183540705 -4456750.333524659 3713049.717548296
-2635114.612641233 -4456750.321861284 3713049.71041638
-2635114.6083786744 -4456750.319641718 3713049.7038529315
-2635114.6093628877 -4456750.325469095 3713049.7076342124
-2635114.609001234 -4456750.319868862 3713049.7045700573
-2635114.605823762 -4456750.317857532 3713049.7021395927
-2635114.6069782344 -4456750.324445015 3713049.7055756757
-2635114.6074858257 -4456750.32019299 3713049.7069412447
-2635114.606613203 -4456750.31785849 3713049.7038726294
-2635114.6085108337 -4456750.321702239 3713049.7079843497
-2635114.607610454 -4456750.319333949 3713049.7045781002
-2635114.6082766 -4456750.318415405 3713049.7048801533
-2635114.6126541137 -4456750.323253835 3713049.706848819
-2635114.6134263948 -4456750.322665868 3713049.708947604
-2635114.6099332594 -4456750.320111855 3713049.705038838
-2635114.6101609184 -4456750.319839619 3713049.706071221
-2635114.6030943724 -4456750.316916507 3713049.7018547105
-2635114.605118225 -4456750.316539471 3713049.700869152
-2635114.6023172014 -4456750.312031603 3713049.6971956682
-2635114.602973581 -4456750.311151189 3713049.6962313782
-2635114.6048736726 -4456750.316871785 3713049.698979506
-2635114.6075788564 -4456750.319319449 3713049.7022364736
-2635114.607384961 -4456750.318762808 3713049.702425882
-2635114.607785893 -4456750.324381368 3713049.705419331
-2635114.6071954346 -4456750.325016607 3713049.704800409
-2635114.6065916857 -4456750.321958226 3713049.705785675
-2635114.6057808558 -4456750.320345066 3713049.7032554327
-2635114.60456299 -4456750.322600436 3713049.702965317
-2635114.605742561 -4456750.319428049 3713049.7045389884
-2635114.603344025 -4456750.3194387965 3713049.7031066804
-2635114.605672863 -4456750.320676094 3713049.703702621
-2635114.6050485903 -4456750.321674352 3713049.7029304155
-2635114.6029758067 -4456750.315482019 3713049.702435524
-2635114.6033402947 -4456750.321316842 3713049.704183235
-2635114.6015139082 -4456750.319676647 3713049.7016194924
-2635114.60086385 -4456750.313328449 3713049.697803062
-2635114.6031266125 -4456750.31800259 3713049.7010572986
-2635114.5987624405 -4456750.3123360155 3713049.6950792554
-2635114.603047713 -4456750.315293882 3713049.699762328
-2635114.608009231 -4456750.31462204 3713049.702304211
-2635114.604986035 -4456750.319105593 3713049.7024209034
-2635114.6070911335 -4456750.322139868 3713049.706808757
-2635114.6091334075 -4456750.322429428 3713049.707000315
-2635114.6078161704 -4456750.322141833 3713049.704285611
-2635114.604842142 -4456750.31752893 3713049.7023726166
-2635114.6083685583 -4456750.318648809 3713049.703411133
-2635114.6090560006 -4456750.320977063 3713049.704555003
-2635114.607196033 -4456750.322470852 3713049.704461857
-2635114.6064876616 -4456750.320234749 3713049.7040908467
-2635114.609781048 -4456750.321752969 3713049.7055290607
-2635114.6084990557 -4456750.320246767 3713049.7032678085
-2635114.608851229 -4456750.319444663 3713049.7049099705
-2635114.6058264333 -4456750.31539656 3713049.7017744957
-2635114.6041467544 -4456750.311966894 3713049.6993203335
-2635114.6081621293 -4456750.3161541475 3713049.702360732
-2635114.606483732 -4456750.317110128 3713049.7019163175
-2635114.6080027926 -4456750.321135164 3713049.703128963
-2635114.6059268303 -4456750.316853854 3713049.699477157
-2635114.60725043 -4456750.320013079 3713049.7020999966
-2635114.6101081823 -4456750.325758924 3713049.70611352
-2635114.607087497 -4456750.32132593 3713049.702506207
-2635114.6068640635 -4456750.322867423 3713049.7034992394
-2635114.6070909463 -4456750.322648783 3713049.7056534616
-2635114.60552792 -4456750.317484451 3713049.7027829927
-2635114.6098076515 -4456750.322167315 3713049.7078896062
-2635114.6047155815 -4456750.319057754 3713049.7022829577
-2635114.6059615975 -4456750.319680507 3713049.706157063
-2635114.6015597065 -4456750.309923908 3713049.6986653013
-2635114.607644168 -4456750.321012792 3713049.7058580094
-2635114.634473717 -4456750.35446534 3713049.738983988
-2635114.633509926 -4456750.351665352 3713049.7379403748
-2635114.607782775 -4456750.322639973 3713049.707226265
-2635114.638176776 -4456750.358498763 3713049.743147581
-2635114.6387237846 -4456750.356371471 3713049.743158516
-2635114.6377464198 -4456750.356284054 3713049.74137473
-2635114.6392852888 -4456750.359913869 3713049.7441621805
-2635114.637194329 -4456750.353950441 3713049.7403248143
-2635114.6371537037 -4456750.355865593 3713049.7423994485
-2635114.6023419816 -4456750.320916255 3713049.70121465
-2635114.635935115 -4456750.357349149 3713049.7403358757
-2635114.633460018 -4456750.354815907 3713049.7408615304
-2635114.6344023426 -4456750.356446514 3713049.7414581417
-2635114.6344681666 -4456750.356367363 3713049.7411230807
-2635114.636767365 -4456750.3532403745 3713049.74056212
-2635114.636182302 -4456750.356544822 3713049.742296733
-2635114.6331614684 -4456750.350318921 3713049.7382808393
-2635114.637207763 -4456750.354018996 3713049.7396400603
-2635114.635797866 -4456750.3511348115 3713049.7369805784
-2635114.6311376137 -4456750.350463559 3713049.7324403967
-2635114.632991677 -4456750.353682965 3713049.735518623
-2635114.632453734 -4456750.349758784 3713049.735894024
-2635114.6344791832 -4456750.355886889 3713049.739971506
-2635114.635602489 -4456750.356781982 3713049.741338383
-2635114.633914351 -4456750.352086195 3713049.739755648
-2635114.635803297 -4456750.35100073 3713049.738603869
-2635114.6361552086 -4456750.352176265 3713049.7377373213
-2635114.6348505486 -4456750.350721835 3713049.735717283
-2635114.619294056 -4456750.331624215 3713049.7186573045
-2635114.620239373 -4456750.335873376 3713049.7216383503
-2635114.6210546633 -4456750.337352096 3713049.7221489674
-2635114.623230785 -4456750.339183225 3713049.7260112585
-2635114.6214589374 -4456750.339866429 3713049.726296768
-2635114.6253459626 -4456750.3459959915 3713049.7281379164
-2635114.6237664744 -4456750.337219314 3713049.726630178
-2635114.623846196 -4456750.338025427 3713049.7266721223
-2635114.6253931457 -4456750.342454081 3713049.7266923324
-2635114.624370654 -4456750.340816318 3713049.725914085
-2635114.621027175 -4456750.3358435035 3713049.722897843
-2635114.6227307734 -4456750.341253222 3713049.728086822
-2635114.622569313 -4456750.338139368 3713049.726837898
-2635114.6209584484 -4456750.33673543 3713049.7231167033
-2635114.6215133495 -4456750.338397053 3713049.725362589
-2635114.618889553 -4456750.337435577 3713049.721529037
-2635114.6202107817 -4456750.340446914 3713049.725018396
-2635114.620090258 -4456750.339781654 3713049.7252064315
-2635114.618707285 -4456750.336245915 3713049.722144047
-2635114.6219732733 -4456750.337575263 3713049.7250650767
-2635114.6250220183 -4456750.341167447 3713049.7250749306
-2635114.625335233 -4456750.342060968 3713049.728108201
-2635114.6275834744 -4456750.344303803 3713049.729503568
-2635114.6250109044 -4456750.34180891 3713049.72770753
-2635114.6248835973 -4456750.341169186 3713049.7244301327
-2635114.623952142 -4456750.339025399 3713049.7227814402
-2635114.625505039 -4456750.342445334 3713049.724403548
-2635114.6230715266 -4456750.3426176375 3713049.721765378
-2635114.6181566906 -4456750.337324083 3713049.7168419226
-2635114.6183395493 -4456750.336439147 3713049.7173536294
-2635114.6193743926 -4456750.339739263 3713049.717702318
-2635114.6198833045 -4456750.338313876 3713049.717100968
-2635114.623744015 -4456750.343350539 3713049.72176519
-2635114.6204224345 -4456750.340671619 3713049.717583851
-2635114.6184944194 -4456750.338740043 3713049.716769436
-2635114.6202289523 -4456750.338048702 3713049.717006698
-2635114.6237249877 -4456750.341015215 3713049.7198264194
-2635114.6222839644 -4456750.340142724 3713049.7186892335
-2635114.621724924 -4456750.341239575 3713049.717879672
-2635114.6187755466 -4456750.3369620815 3713049.7138784695
-2635114.622749152 -4456750.340627877 3713049.71796019
-2635114.621481702 -4456750.344368527 3713049.719749888
-2635114.6226674304 -4456750.345950392 3713049.720013316
-2635114.62011523 -4456750.340798419 3713049.718552243
-2635114.6215632064 -4456750.339905853 3713049.7181032225
-2635114.6198809077 -4456750.339838869 3713049.7149935546
-2635114.618889995 -4456750.338492673 3713049.7155986014
-2635114.6181309195 -4456750.340683884 3713049.716489275
-2635114.6183152623 -4456750.341670374 3713049.715484723
-2635114.618757704 -4456750.339411111 3713049.717349824
-2635114.618352291 -4456750.341006357 3713049.7161541996
-2635114.619953228 -4456750.345035314 3713049.717733918
-2635114.6224200567 -4456750.346625501 3713049.721119805
-2635114.620566524 -4456750.344983389 3713049.7191294036
-2635114.623797154 -4456750.34857728 3713049.722795857
-2635114.622613337 -4456750.3461668985 3713049.721957625
-2635114.622515008 -4456750.345948276 3713049.717839012
-2635114.6245279894 -4456750.348256502 3713049.720416614
-2635114.621204552 -4456750.3482644865 3713049.7197823874
-2635114.619781835 -4456750.347007421 3713049.7202377864
-2635114.6195643498 -4456750.348084628 3713049.71988377
-2635114.6266559907 -4456750.356554429 3713049.7272840193
-2635114.6226026295 -4456750.350348989 3713049.7231043833
-2635114.6214293945 -4456750.3444388 3713049.7202446377
-2635114.6255813614 -4456750.353197828 3713049.724700322
-2635114.625310127 -4456750.352553489 3713049.724477975
-2635114.625045201 -4456750.3506013425 3713049.725324978
-2635114.6272727726 -4456750.35576502 3713049.727138875
-2635114.6297774855 -4456750.359204344 3713049.731305032
-2635114.6290189796 -4456750.356222135 3713049.727286787
-2635114.6297258823 -4456750.359668251 3713049.727551639
-2635114.6272143056 -4456750.358200129 3713049.7284889678
-2635114.626254742 -4456750.351757833 3713049.7268020515
-2635114.6279371213 -4456750.354691746 3713049.7294039703
-2635114.6273279786 -4456750.352041072 3713049.7268766663
-2635114.6280772304 -4456750.35488554 3713049.7287088796
-2635114.628281675 -4456750.355152447 3713049.7297536368
-2635114.62567361 -4456750.354173706 3713049.7268907195
-2635114.627000217 -4456750.357600714 3713049.7310836054
-2635114.625046991 -4456750.352742941 3713049.7278863573
-2635114.6241274676 -4456750.350384891 3713049.724192091
-2635114.6276973155 -4456750.356969284 3713049.7290397603
-2635114.6261297027 -4456750.352661407 3713049.7254367755
-2635114.624969162 -4456750.350602125 3713049.7262205733
-2635114.6276681526 -4456750.357912447 3713049.7282711538
-2635114.6230941406 -4456750.352062612 3713049.724082279
-2635114.6232681107 -4456750.3516690675 3713049.725795027
-2635114.6262686867 -4456750.357609816 3713049.7291236166
-2635114.624054113 -4456750.355055226 3713049.7287174016
-2635114.6217566566 -4456750.348989294 3713049.724546478
-2635114.6235323446 -4456750.352136162 3713049.7264860487
-2635114.6235817187 -4456750.3536898745 3713049.726312991
-2635114.620610574 -4456750.349559292 3713049.7231221497
-2635114.6204589116 -4456750.348718408 3713049.721461922
-2635114.623783031 -4456750.350642818 3713049.7239518557
-2635114.6251395633 -4456750.350094752 3713049.7229424133
-2635114.6229209867 -4456750.346874879 3713049.7194827166
-2635114.6251745713 -4456750.35076499 3713049.7249521744
-2635114.626037546 -4456750.348393954 3713049.724920819
-2635114.627168031 -4456750.353662936 3713049.7254816294
-2635114.627303588 -4456750.353365191 3713049.726722673
-2635114.6218567183 -4456750.346546089 3713049.7182407076
-2635114.6187467477 -4456750.345879756 3713049.7190133827
